  -1.98622   0.740137 -0.0284716 -0.679365  -1.70479  0.694594
   -1.9935   0.690178 -0.0454737 -0.649046   -1.6949  0.680671
  -2.05451   0.658786 -0.0646799 -0.55104   -1.686 0.641205
  -2.12576   0.645201 -0.0988285 -0.449147  -1.69404  0.612661
 -2.17849  0.634513 -0.125862 -0.363418  -1.69856  0.599245
 -2.24033  0.630468 -0.130742 -0.286083  -1.69125  0.599564
 -2.30002  0.615904 -0.134433 -0.209213  -1.67724  0.604508
 -2.35871  0.598848 -0.125511 -0.13554  -1.6601 0.608864
  -2.4149  0.573515 -0.123558 -0.0710395   -1.63112   0.608424
 -2.48663  0.521503 -0.131939 -0.00439438    -1.55832    0.604702
 -2.52314   0.43527 -0.123418 0.00634027   -1.42872   0.620687
 -2.53555  0.358549 -0.116161 -0.0110452   -1.33196   0.640955
 -2.53476  0.274328 -0.100572 -0.0370445   -1.21733   0.686195
 -2.54187  0.190985 -0.060947 -0.0604014   -1.10016   0.760138
   -2.55585   0.0755152 -0.00434477 -0.0631056  -0.983717    0.86368
 -2.58544 0.0156292 0.0359808 -0.0463557  -0.912295   0.956177
  -2.61437 -0.0527483   0.101887 -0.0242736   -0.85277    1.05965
 -2.63805 -0.103018  0.157978 0.00856301  -0.807442    1.18987
 -2.64965 -0.157279  0.226378   0.04932 -0.786271   1.28446
 -2.69397 -0.177827  0.291293  0.095858 -0.785333   1.36615
 -2.76082 -0.186514  0.341341  0.172294 -0.790321   1.45801
 -2.84842 -0.234462  0.426597  0.288393 -0.786089    1.5363
 -2.93738 -0.260819  0.446935  0.390514 -0.761886   1.57034
 -3.01931 -0.288494  0.449585  0.490339 -0.716476    1.5813
 -3.10393 -0.323642  0.443932  0.610893 -0.641382   1.56382
-3.18171  -0.3925 0.432801  0.702236 -0.577204   1.51952
  -3.2803 -0.405363  0.365024  0.777126 -0.528111   1.45973
 -3.34673 -0.430638  0.317998 0.869217 -0.48833  1.36796
 -3.39756 -0.419777  0.253293  0.941753 -0.475647   1.29079
 -3.43634 -0.411932  0.205247  0.996911 -0.471918   1.21633
 -3.48547 -0.452403  0.139286   1.04335 -0.474446   1.11878
 -3.50736 -0.434362 0.0848624   1.06026 -0.478953   1.05558
 -3.51252 -0.424053 0.0424374   1.06256 -0.486236  0.960313
  -3.51337  -0.432508 -0.0071282  1.04727 -0.49126 0.892561
  -3.50817  -0.432608 -0.0419778   1.02069 -0.493432  0.838277
  -3.50005  -0.449205 -0.0871172  0.985127 -0.488461   0.79345
 -3.48282 -0.462674  -0.10459  0.949501 -0.476314  0.762294
  -3.4492 -0.515241 -0.150233  0.911738 -0.462856  0.736536
 -3.43736 -0.530496 -0.148926  0.862288 -0.440116  0.723058
 -3.42091 -0.558869 -0.157295  0.828328 -0.427544  0.715473
 -3.39823  -0.59836 -0.166198  0.801679 -0.423223  0.690548
 -3.38622 -0.621564 -0.180711  0.795234 -0.423642  0.659984
  -3.3643 -0.645109 -0.213961  0.796028 -0.428535  0.608601
 -3.35368 -0.643761 -0.237782  0.801615 -0.445204  0.575297
 -3.33187 -0.642737 -0.259347  0.782814 -0.447502  0.569672
 -3.26906  -0.65071 -0.255436  0.726819 -0.418726  0.562713
 -3.17409 -0.659631 -0.248287  0.653792 -0.398361  0.567991
 -3.07768 -0.660455 -0.214658  0.529041 -0.378291  0.595576
 -2.96908 -0.661071 -0.183564  0.393941 -0.364033  0.631809
  -2.8822 -0.660012 -0.151147  0.268559 -0.357454   0.69426
 -2.78804 -0.655595 -0.113799 0.185273 -0.36664  0.72775
  -2.74318   -0.65086 -0.0930993  0.121202 -0.369707   0.72882
 -2.67104 -0.655748 -0.106196 0.0828787 -0.360317  0.676977
 -2.62902 -0.661727 -0.132184 0.0621528 -0.343441  0.628018
 -2.57045 -0.676881 -0.157126 0.0301346 -0.322855  0.594153
 -2.48498 -0.692304 -0.147934 -0.0603116   -0.31021   0.593099
 -2.41705 -0.707688 -0.138581 -0.134758 -0.298865  0.596775
 -2.33217 -0.728555 -0.143294 -0.250925  -0.28032   0.61986
 -2.25994 -0.744178 -0.119183 -0.351213 -0.268926  0.659749
  -2.19333  -0.747726 -0.0551849 -0.456287 -0.258415  0.731307
   -2.12756   -0.753485 0.000800276 -0.543489 -0.255691  0.816081
 -2.07372 -0.759492 0.0536472 -0.623307 -0.254057  0.945274
 -2.02732 -0.763663  0.130314 -0.656656 -0.257528   1.05565
 -1.99711 -0.765026  0.168422 -0.659115 -0.266273   1.16287
 -1.97773 -0.750409  0.281526 -0.606927  -0.29117   1.29477
 -2.04326 -0.729713  0.345959 -0.520327 -0.326319    1.3529
 -2.11434 -0.712684  0.302556 -0.445093 -0.344204   1.25655
 -2.19828 -0.697959  0.197934 -0.367584 -0.343123   1.09942
 -2.27042 -0.680922  0.107581 -0.291419  -0.34725   1.00277
 -2.39583 -0.662437 0.0374598 -0.191012 -0.361182  0.903575
   -2.4965  -0.641007 -0.0187911 -0.0717421  -0.376244   0.814607
  -2.58354  -0.633857 -0.0754839 0.0385347 -0.389411    0.7517
  -2.6939  -0.61575 -0.101433   0.18569 -0.403161  0.690849
 -2.78707 -0.607778 -0.135431 0.306652 -0.40741 0.654941
 -2.88474 -0.607746 -0.178294  0.417272 -0.410642  0.628227
 -2.97256 -0.603123 -0.194403  0.522197 -0.416121  0.610271
 -3.05115 -0.603552 -0.226354  0.607621 -0.417694  0.603318
 -3.12714 -0.603436 -0.220426  0.667155 -0.409628  0.600941
 -3.21134 -0.624257 -0.240526  0.726114 -0.395444  0.602558
 -3.29544 -0.635661 -0.225063  0.787033 -0.400044  0.625925
 -3.37538 -0.629622 -0.207646   0.85004 -0.415657  0.648277
 -3.49014 -0.597738 -0.228315 0.945168  -0.4496 0.645176
 -3.59046 -0.546282 -0.252378   1.06016 -0.534021  0.615743
 -3.65972   -0.4896 -0.281083   1.14683 -0.604893  0.589331
 -3.72148 -0.437855 -0.302448   1.20902 -0.660757   0.57063
 -3.77315 -0.385036 -0.324528   1.27232 -0.726226  0.559865
 -3.84295 -0.308861 -0.350141   1.34343 -0.807104  0.556824
 -3.91622 -0.267129 -0.338774   1.43885 -0.883617  0.553648
 -3.94209   -0.2554 -0.318061   1.52386 -0.902852  0.554996
 -3.96343   -0.2629 -0.317969   1.55813 -0.875781  0.564218
    -3.99 -0.284976 -0.309958    1.5631 -0.818441  0.583328
  -4.0008 -0.316756 -0.268318   1.54403 -0.734548  0.623719
 -4.00699 -0.379841 -0.237921   1.52325 -0.653128  0.678714
 -4.01754 -0.419908 -0.173811    1.5068 -0.570476  0.759317
 -4.02457 -0.470401  -0.13805    1.5085 -0.494528  0.858375
  -4.04732  -0.495204 -0.0643473    1.5356 -0.408738  0.999179
  -4.07141  -0.536927 0.00434442   1.57584 -0.355661   1.12591
 -4.07132 -0.635653 0.0773075   1.62087 -0.330248   1.24348
-4.11053 -0.61906 0.121196   1.66882 -0.333263   1.35293
 -4.14941 -0.659643  0.211326   1.72995 -0.370297   1.46566
 -4.20018 -0.671872  0.249374   1.76255 -0.399572   1.51352
 -4.25858 -0.712468  0.247127   1.79744 -0.377629   1.52052
  -4.2891 -0.763073  0.244097   1.79138 -0.260938    1.4777
 -4.27807 -0.917781  0.285057   1.77857 -0.133973   1.37096
 -4.29012 -0.897623  0.151281    1.77105 -0.0638885    1.25758
 -4.28267 -0.904847   0.10529    1.76658 -0.0314684    1.12713
 -4.26477 -0.888946 0.0417195    1.76132 -0.0387692   0.988202
  -4.22873  -0.879833 -0.0404954   1.75307 -0.106072  0.821004
 -4.19611 -0.855523 -0.102868   1.73202 -0.182445  0.724645
 -4.16358 -0.836063 -0.164476   1.68726 -0.268644  0.637133
 -4.10627 -0.816342 -0.267202  1.63544 -0.32581 0.588982
 -4.06089 -0.782026  -0.29502   1.57942 -0.370472  0.566094
 -4.04517 -0.730654 -0.301286   1.51911 -0.402699  0.565443
 -4.02064 -0.717059 -0.307552   1.48383 -0.418193  0.572555
 -4.01214  -0.71215 -0.308665   1.45756 -0.427688  0.580829
 -3.97637 -0.701513 -0.294047   1.42005 -0.431949  0.596627
 -3.95222 -0.699929 -0.288148    1.3957 -0.418488  0.607565
 -3.93925 -0.698612 -0.283646   1.38559 -0.396702    0.6121
 -3.92517 -0.713864 -0.271743   1.38714 -0.369928  0.611056
 -3.90814 -0.756919  -0.28295   1.42228 -0.296464  0.602255
 -3.93471 -0.821216 -0.262543   1.46413 -0.199767    0.6166
 -3.95408 -0.886393 -0.230269    1.50882 -0.0816054   0.661437
 -3.95516 -0.981359 -0.180739   1.53526 0.0241022  0.725148
 -3.97201  -1.03471 -0.119939  1.54922 0.136379 0.818138
  -3.96606   -1.15278 -0.0537743  1.54337 0.264843 0.967551
 -3.94417  -1.17154 0.0591459 1.52814 0.34886 1.10758
-3.93865  -1.2801 0.144842 1.51154 0.40473 1.24627
-3.93363 -1.29287 0.205573   1.5004 0.428436  1.34548
-3.92602 -1.30699 0.289526  1.48339 0.439014  1.48539
-3.90548  -1.3168 0.381195  1.46523 0.418112  1.62659
-3.89427 -1.37586 0.481503   1.4519 0.378579  1.71731
-3.87445 -1.35619 0.547283  1.42506 0.295589  1.81409
-3.86109 -1.34635 0.564319  1.40552 0.239264  1.84387
-3.84376 -1.32961 0.584335  1.38777 0.177996  1.85522
-3.81843 -1.29223 0.687138  1.36373 0.109636  1.85209
-3.80638 -1.27534 0.631776    1.3457 0.0651312    1.8438
-3.79452 -1.25476 0.640562    1.31873 0.00134802    1.82496
-3.77313 -1.21151  0.65554    1.29638 -0.0502286    1.80552
-3.77135 -1.20035  0.65618    1.27949 -0.0827296      1.791
-3.74849 -1.16033 0.647848   1.24999 -0.125317   1.77094
 -3.7375 -1.13833 0.632025   1.21651 -0.163493   1.75406
-3.68919 -1.06176 0.645801   1.13252 -0.204149   1.78117
-3.67117 -1.05508 0.654104   1.10517 -0.172472   1.80891
-3.65034 -1.05713 0.660759   1.07824 -0.120117   1.82125
-3.64231 -1.05974 0.661259    1.06093 -0.0762997    1.81698
-3.61934 -1.07269 0.668699    1.04585 -0.0248435    1.79707
-3.60736 -1.09351  0.59148   1.02999 0.0481579   1.73237
-3.59506 -1.10443 0.543365   1.02068 0.0996087    1.6422
-3.58991 -1.08523 0.442841  1.02053 0.132405  1.51733
-3.57396 -1.09661 0.367293   1.0241 0.130065  1.37724
 -3.5901 -1.04007 0.257313  1.02897 0.100396  1.22966
-3.58224 -0.98346 0.161345   1.03461 0.0455372   1.08514
 -3.5844 -0.97057 0.102489     1.03839 -0.00862646    0.986134
 -3.58685 -0.906864  0.016513   1.04725 -0.104649  0.856085
 -3.58723 -0.853198 -0.020691   1.05381 -0.187532  0.772286
 -3.58572 -0.783674 -0.114967   1.06024 -0.326293  0.671136
 -3.57304 -0.703497 -0.207215    1.0573 -0.455873  0.606064
 -3.53993 -0.602771  -0.24841   1.02789 -0.576597  0.567991
 -3.51591 -0.511842 -0.260253 0.963867 -0.70104 0.549193
-3.44477 -0.43607 -0.28074  0.892839 -0.767023  0.549824
 -3.37604 -0.378968 -0.277894  0.806093 -0.818515  0.563904
 -3.31815 -0.345462 -0.260846  0.697662 -0.867433  0.597383
 -3.26153 -0.310339 -0.214615  0.627746 -0.894824  0.625659
 -3.17281 -0.278254 -0.216034  0.575201 -0.914847  0.646696
 -3.12882 -0.255981 -0.186741   0.52032 -0.946766  0.669663
 -3.06626 -0.217902 -0.183352  0.492278 -0.971069   0.68346
 -3.08518 -0.206298 -0.135143  0.481036 -0.987556  0.691136
 -3.08715 -0.186179 -0.132282  0.481772 -0.999627  0.691208
 -3.08444 -0.170369 -0.141691 0.509444 -1.00597 0.669659
 -3.13133 -0.146946 -0.184472  0.604771 -0.987297  0.610609
 -3.18525 -0.124807 -0.197023  0.668901 -0.992286  0.596138
 -3.21013 -0.106588 -0.200417 0.702758 -1.00912 0.600242
  -3.23077 -0.0849229  -0.205122 0.715187 -1.02973 0.613144
  -3.23601 -0.0777975  -0.199129 0.701683 -1.02648 0.631592
   -3.2358 -0.0723021  -0.181895  0.674964 -0.991475  0.664119
  -3.22634 -0.0805011  -0.142582  0.654328 -0.939862  0.709472
  -3.22812 -0.0904583  -0.101421  0.646104 -0.883234  0.770113
  -3.23254  -0.112461 -0.0449627  0.653876 -0.822237  0.869239
   -3.2633  -0.128372 0.00492037  0.681138 -0.791981  0.948092
 -3.30267 -0.128083 0.0430572  0.737125 -0.777753   1.02142
 -3.35335 -0.132315 0.0678194  0.817816 -0.781564   1.06263
 -3.41971 -0.131673 0.0761252  0.916506 -0.799014   1.06823
 -3.50519  -0.10339 0.0685376  1.05973 -0.84893  1.04255
  -3.57161 -0.0475207  0.0516578   1.16299 -0.910201   1.01343
  -3.64941 0.00192006  0.0233858   1.25771 -0.988448  0.981944
 -3.68915 0.0405704 0.0104181  1.32315  -1.0632 0.951057
 -3.74191 0.0781912 -0.052907  1.37367 -1.14295 0.895817
  -3.61174   0.101341 -0.0535134  1.37739  -1.1473 0.885903
  -3.60967  0.0803547 -0.0931196  1.37699 -1.11592 0.851798
  -3.61243 0.00650291 -0.0912555  1.36238 -1.00143 0.843774
  -3.65869  -0.103272 -0.0803286   1.33447 -0.868207  0.856985
  -3.65666  -0.203717 -0.0591909    1.2622 -0.711724  0.876124
  -3.63013  -0.279241 -0.0395755   1.18541 -0.610374  0.885757
  -3.58458  -0.368744 -0.0419564   1.07031 -0.506083  0.894565
  -3.51143   -0.41864 -0.0278193  0.968668 -0.447947  0.896844
 -3.43384 -0.472617 -0.030609  0.864392 -0.416625  0.887238
  -3.37804  -0.512905 -0.0358465 0.773555 -0.40098 0.876711
  -3.30173  -0.536463 -0.0348969  0.686758 -0.395201   0.85899
  -3.25275  -0.557019 -0.0414613  0.609462 -0.395505  0.832638
  -3.11801  -0.616614 -0.0882722 0.543122 -0.39815 0.790663
  -3.08539  -0.609086 -0.0942653  0.514206 -0.404135  0.740349
 -3.06065  -0.60668 -0.101224  0.499321 -0.410964  0.699967
 -3.01988 -0.619073 -0.115675  0.461278 -0.415733  0.691224
  -2.99012  -0.642139 -0.0930456   0.39406 -0.345523   0.73431
  -2.94328  -0.691087 -0.0555375  0.334473 -0.243025  0.820215
  -2.90424  -0.761523 0.00566125 0.302206 -0.13046 0.942153
 -2.88314 -0.832053 0.0890518   0.309601 -0.0249801    1.09938
 -2.87318 -0.897499  0.196189  0.349908 0.0466869   1.25967
 -2.88838 -0.907532  0.240473  0.384132 0.0709677   1.35589
 -2.90059 -0.942825  0.324798  0.435431 0.0770798   1.48055
 -2.92756 -0.980939   0.40852  0.468712 0.0611632   1.56755
-2.94765 -1.04885 0.499968  0.486862 0.0389049   1.63316
 -2.9726 -1.04411 0.504992  0.493467 0.0191133   1.67133
-3.01284 -1.08184 0.543248  0.489889 0.0118368    1.6961
-3.06128   -1.125 0.563841 0.469045 0.030777  1.70347
-3.07059 -1.16701  0.59929  0.409047 0.0959659   1.65556
-3.07296  -1.1814 0.586721 0.378339 0.175159  1.58064
-3.05415 -1.20795 0.562245 0.382212 0.254796  1.49294
-3.02387 -1.24913 0.542355 0.410603 0.318022  1.41359
-2.99414 -1.30571 0.488988 0.455397 0.373581  1.33376
-3.05027 -1.32334 0.425352 0.511726 0.409571  1.24855
-3.08896 -1.35451 0.328655 0.591754 0.425636   1.1444
-3.12831 -1.40311 0.210362 0.710068 0.397122 0.996123
-3.17754 -1.34077 0.176124 0.769384 0.361563 0.926566
 -3.26343  -1.25112 0.0865558 0.870381  0.27439 0.815929
  -3.33964   -1.22385 -0.0235786 0.958116 0.167595 0.728235
   -3.3856   -1.20851 -0.0876238    1.0119 0.0830603   0.68008
 -3.46296  -1.12482 -0.188044     1.0797 -0.0383995   0.629483
 -3.51985  -1.00188 -0.215812   1.13642 -0.155292  0.596733
 -3.57246 -0.925545 -0.274299   1.17312 -0.234737  0.576717
-3.61087  -0.8747 -0.32577   1.19014 -0.201407  0.560015
 -3.61292 -0.912815 -0.263556    1.16675 -0.0514882   0.609304
 -3.58154  -1.00289 -0.245342   1.12733 0.0823343  0.701996
 -3.56079  -1.06863 -0.158771  1.10137 0.175961 0.805832
  -3.53919   -1.13254 -0.0726272  1.08244 0.254999 0.947337
  -3.54224   -1.14104 -0.0117059  1.08133 0.287694  1.04662
 -3.53607  -1.22784 0.0857106  1.09556 0.307709  1.19163
-3.57809 -1.19101 0.170723   1.1305 0.293907  1.33022
 -3.6106 -1.20053 0.234238   1.1803 0.257491  1.43306
-3.64115 -1.22855 0.312426  1.24499 0.206217  1.51417
-3.68958 -1.23284 0.376679  1.30447 0.153153  1.55799
-3.73078 -1.21756 0.381369   1.3328 0.131253  1.56801
-3.74602 -1.21818 0.381509  1.33554 0.126803  1.57209
-3.75348 -1.21423 0.376485   1.3303 0.116852   1.5785
-3.75605 -1.21268 0.373504 1.32136 0.10362 1.58376
-3.75671 -1.20984 0.376624   1.31165 0.0873866   1.58413
-3.75388 -1.20429 0.383393   1.30403 0.0756443   1.58205
-3.74928 -1.19262 0.390404   1.29808 0.0655537   1.58197
-3.74626 -1.18026 0.392215   1.29494 0.0527563   1.58711
-3.74543 -1.10971 0.418649    1.27902 -0.0414236    1.60614
  -1.75867    1.17089 0.00325905 -0.976479  -2.41097  0.767729
  -1.86184    1.27739 0.00317919 -0.87896 -2.40073 0.750297
  -1.92822     1.2432 -0.0243783 -0.767276  -2.36437  0.729974
  -2.01429    1.21534 -0.0557555 -0.664882  -2.33546  0.706183
  -2.07005    1.20068 -0.0810632 -0.563232  -2.31701  0.674632
   -2.1419    1.18285 -0.0965935 -0.453517  -2.30821  0.646248
 -2.21383   1.16613 -0.114304 -0.334529  -2.30817  0.628795
  -2.3037   1.15025 -0.128932 -0.216513  -2.31043  0.624734
 -2.38315   1.13833 -0.136052 -0.113177  -2.31299   0.62829
 -2.47914      1.12 -0.152795 0.00205716   -2.31213   0.645178
 -2.55631   1.09868 -0.144812 0.0581258  -2.31843  0.675249
 -2.58032   1.08834 -0.137235 0.0636929  -2.33115  0.703451
 -2.59699   1.08535 -0.130654 0.0526309  -2.34574  0.747052
-2.61114  1.08101 -0.11063 0.0285776  -2.35265  0.824158
 -2.60653   1.05729 -0.050401 -0.000120401     -2.31218     0.897302
  -2.60767    1.03394 0.00144724 -0.0284043   -2.27291   0.977944
  -2.6023   1.00339 0.0552832 -0.06073 -2.21918  1.06345
-2.59506 0.971066 0.125704 -0.098416  -2.13953   1.17114
-2.57298 0.940395 0.195422 -0.111477   -2.0708   1.26307
-2.60263 0.902206 0.262854 -0.102511  -2.00622   1.35042
-2.62171  0.86361 0.342191 -0.0569619   -1.92777    1.45759
-2.69058 0.810616 0.449104 0.0382963  -1.85802   1.55696
-2.77825 0.786374 0.483025 0.139956 -1.83215  1.61161
-2.88576 0.770408 0.506165 0.244575 -1.83318  1.64333
-2.99448 0.767405 0.503011 0.372101 -1.86876  1.65566
-3.09401 0.776887 0.498126 0.472245 -1.92318  1.64221
-3.19682 0.802343  0.47874 0.563583 -1.97963  1.60969
-3.28745 0.815789 0.428061 0.684069 -2.05131  1.53253
-3.36909 0.810894 0.363584 0.780308 -2.08026  1.45072
 -3.4399 0.791341 0.298808  0.85389 -2.08231  1.36525
-3.48167 0.786683 0.233617 0.921623  -2.0619  1.24259
-3.49981  0.71491 0.151869 0.943273 -2.03765  1.15506
 -3.50855  0.697211 0.0718914 0.946056 -1.97972  1.02303
    -3.5006    0.656311 -0.00229677  0.92366 -1.92038 0.928554
  -3.47672   0.623526 -0.0785104 0.883974 -1.85847 0.856493
 -3.43323  0.537646 -0.122723 0.820239 -1.78554 0.799718
 -3.36828  0.466876 -0.136858 0.750981 -1.70332 0.757249
 -3.30816  0.405275 -0.157451 0.670625 -1.61698 0.742122
  -3.2533  0.335001 -0.142725 0.577877 -1.50026 0.751216
  -3.2167  0.262333 -0.137729 0.519878   -1.404 0.773052
 -3.17439  0.171638 -0.116366 0.475747 -1.26747 0.803819
  -3.1409 0.0690683 -0.123705 0.474787 -1.16986 0.811632
 -3.15668 0.0113277 -0.118131 0.519086  -1.0745 0.780478
  -3.20092 -0.0554814  -0.143877 0.607849 -1.07794 0.709173
  -3.25426 -0.0425812  -0.178655 0.680014   -1.142  0.65896
   -3.20826 -0.00263513   -0.185619 0.626513 -1.21394 0.664491
 -3.09717 0.0209859 -0.172143 0.517225 -1.23977  0.68393
 -3.01182 0.0381309 -0.158091 0.391189 -1.25518  0.70971
 -2.90809 0.0536386 -0.117015 0.268665 -1.26728 0.743179
  -2.83299  0.0688859 -0.0950055 0.159596 -1.26915 0.787832
 -2.74738 0.0802139 -0.067945 0.0727531  -1.26091  0.822993
  -2.66078  0.0806947 -0.0439553 -0.0261366   -1.23758    0.85335
  -2.56003  0.0732567 -0.0282003 -0.135948  -1.19438  0.878546
  -2.47706  0.0417965 -0.0161504 -0.225022  -1.14797  0.891013
   -2.3663 0.00981657  0.0113543 -0.323782  -1.09109   0.90135
  -2.29596 -0.0260294 0.00593054 -0.420713  -1.03466  0.928851
  -2.19138 -0.0733412  0.0273994 -0.472516  -1.00735  0.952166
  -2.17163 -0.0883365  0.0384267 -0.528871 -0.982803  0.988322
 -2.10452 -0.101713  0.080285 -0.565924 -0.969132    1.0206
  -2.06458 -0.0994362   0.100357 -0.599743 -0.956798   1.06101
  -2.02474 -0.0983171    0.13532 -0.624119 -0.947893   1.10421
-1.99981 -0.10651 0.182596 -0.645412 -0.939792   1.16066
 -2.00418 -0.106331  0.215016 -0.655192 -0.932115   1.20749
-1.92541 -0.10098 0.227207 -0.648838 -0.920835   1.26221
 -2.00965 -0.113731  0.302642 -0.602452 -0.907255   1.34389
 -2.04163 -0.108793  0.363587 -0.534881 -0.912278   1.37949
  -2.11434 -0.0782729   0.320048  -0.47667 -0.962084   1.29372
  -2.11831 -0.0416203   0.248116 -0.424624   -1.0116    1.1464
  -2.23782 -0.0201377   0.137871 -0.369965  -1.03911   1.05265
  -2.36066 -0.0163712  0.0812135 -0.289858  -1.06928  0.957133
  -2.42578 0.00557032  0.0346346 -0.185907   -1.1081  0.870388
   -2.5124  0.0508994 -0.0364377 -0.0816307   -1.14784   0.807893
  -2.64535  0.0594154 -0.0849841 0.0716345   -1.1971  0.738678
 -2.74673 0.0633561 -0.119117 0.207574  -1.2261 0.690771
 -2.86065 0.0630446 -0.153794  0.33987 -1.23945 0.655506
 -2.97662 0.0576548 -0.198822 0.478175 -1.24298 0.632829
 -3.09303 0.0421987 -0.217214  0.61292 -1.24107 0.624016
 -3.19894 0.0290474 -0.227965 0.721146 -1.24068 0.622064
 -3.31348 0.0261948 -0.236945 0.832906 -1.25444 0.621254
 -3.41607 0.0448385 -0.235402 0.886495 -1.29185 0.651989
  -3.4498 0.0812872 -0.206056 0.859223  -1.3434 0.701732
 -3.43648  0.143579 -0.182783 0.773767 -1.37762 0.750331
 -3.43961   0.17904 -0.150316 0.733514 -1.38445 0.832013
 -3.46809  0.220177 -0.126767 0.748294 -1.38982 0.889511
 -3.50484  0.264861 -0.119769 0.781351 -1.40397  0.92071
 -3.55513   0.35402 -0.096209 0.836019 -1.42908 0.922679
 -3.62193  0.388426 -0.165529 0.905121 -1.47076 0.881267
 -3.71103  0.402593 -0.197838   0.9955 -1.52365 0.815622
 -3.76141  0.403012 -0.209782  1.09937 -1.57316 0.737059
 -3.81768  0.410266 -0.246171  1.18219 -1.60148 0.681876
-3.87221 0.407649 -0.27233   1.2732 -1.62237 0.634878
 -3.92802  0.404745 -0.302114  1.37096 -1.63403 0.600818
 -3.96071  0.402498 -0.325862  1.45552 -1.63326 0.583334
 -3.99885  0.397072 -0.335428  1.51788 -1.62799 0.580893
 -4.02513  0.379209 -0.310409  1.54493 -1.62949 0.587857
 -4.03139  0.377527 -0.309176  1.52874 -1.64112 0.603942
 -4.02736  0.376574 -0.296523  1.48206 -1.65086 0.622471
 -4.00048  0.378817 -0.280882  1.42099 -1.65074 0.646839
 -3.9635 0.382533 -0.27457  1.34893 -1.63396 0.681246
 -3.92137  0.341344 -0.238304   1.2499 -1.56785 0.743375
 -3.86685  0.291353 -0.213003  1.19535 -1.47581 0.791192
 -3.88481  0.189965 -0.198253  1.19395 -1.35105 0.802637
  -3.9053  0.115748 -0.224961  1.23637 -1.29875 0.768139
 -3.91275  0.100509 -0.230055  1.29318 -1.28805 0.729466
 -3.94803 0.0812325 -0.239922  1.33978 -1.29041 0.703332
 -3.97919 0.0690465 -0.245402  1.39034 -1.29868 0.679953
  -4.0122 0.0659492 -0.261138  1.44461 -1.31464 0.663713
 -4.03288 0.0776611   -0.2671  1.50798 -1.35009 0.658708
 -4.05563 0.0989008 -0.264853  1.54161 -1.38991 0.677455
 -4.06262  0.136761 -0.259944  1.56062 -1.45288 0.730922
 -4.06859  0.181041 -0.223774   1.5484  -1.5077 0.797159
 -4.05363  0.220737 -0.162736 1.50875 -1.5518 0.88168
   -4.0115   0.232892 -0.0856801  1.43743 -1.58059 0.993233
  -3.99631    0.24449 -0.0519088  1.37968 -1.58265  1.08422
   -3.96699    0.258645 -0.00616174  1.32871 -1.56979  1.17007
-3.90947 0.222844 0.091705  1.24639 -1.50205  1.33093
-3.84695 0.221882 0.197188 1.18434 -1.3908 1.45885
-3.79809  0.18467 0.291934 1.14277 -1.2677 1.52978
 -3.7656 0.139289 0.374202  1.10792 -1.15919   1.5536
 -3.72721 0.0786489  0.456124  1.08184 -1.03663  1.57761
 -3.73539 0.0156379  0.477875   1.08585 -0.982769   1.61257
   -3.73989 -0.00946235    0.490623   1.09603 -0.956611   1.66364
  -3.73931 -0.0410353   0.542818   1.10813 -0.944885   1.70866
  -3.74792 -0.0649162    0.56721   1.12864 -0.935431   1.75464
  -3.76174 -0.0932161   0.591161   1.16679 -0.927193   1.80462
 -3.77371 -0.120646  0.615121   1.20369 -0.930214   1.83489
 -3.7831 -0.13973 0.626703   1.23634 -0.941733   1.84938
-3.79735 -0.16568 0.605229   1.25651 -0.953371   1.85036
 -3.81117 -0.190112  0.584577   1.28653 -0.972617   1.83698
 -3.81942 -0.208217   0.57787   1.31329 -0.999067   1.79763
 -3.83475 -0.185942  0.573584  1.32562 -1.02434   1.7448
 -3.81164 -0.250268  0.441562  1.32264 -1.07476  1.60004
 -3.80204 -0.232123  0.401952  1.3083 -1.0969 1.48355
 -3.78512 -0.225856  0.320746  1.28635 -1.10693  1.35913
 -3.75788 -0.268191  0.205865  1.25809 -1.09458  1.21637
-3.75306 -0.28112 0.145509  1.23767 -1.07206  1.11998
 -3.73365 -0.282629 0.0483234  1.20847 -1.01336 0.970581
  -3.71606  -0.298182 -0.0932702     1.186 -0.937516  0.847008
  -3.70624  -0.388565 -0.0983702   1.17341 -0.871467  0.767969
 -3.70032  -0.43403 -0.204112   1.16462 -0.774802  0.676038
 -3.68218 -0.486978 -0.264737   1.17055 -0.693362  0.614802
 -3.69831 -0.461551 -0.266903   1.20018 -0.817027  0.615429
 -3.71205 -0.365209   -0.2583   1.20154 -0.940504  0.665339
 -3.71401 -0.270671  -0.20465  1.20332 -1.07341 0.736774
  -3.7169 -0.202765 -0.178191  1.20296 -1.16016 0.794925
 -3.72391 -0.119383 -0.173637  1.20206 -1.24787 0.862581
  -3.72687 -0.0360938 -0.0735316  1.19656 -1.36606 0.979389
 -3.71996  0.045992 0.0112614  1.18537 -1.44878  1.09328
 -3.73057   0.12063 0.0778532  1.16754 -1.50846   1.2198
-3.72072 0.185551 0.157852  1.14605 -1.53643  1.33685
-3.71945 0.239983 0.227977  1.12422 -1.52687  1.44528
-3.71326  0.27214 0.279313  1.10389 -1.48858   1.5251
 -3.7016 0.283146  0.33857  1.08716 -1.45767  1.56276
-3.69097 0.283879 0.391221  1.05931 -1.41257  1.59524
-3.69729 0.260367 0.363773  1.03723 -1.38173  1.60435
-3.69327 0.266804 0.389466  1.00063 -1.34322  1.59954
-3.68034 0.260796 0.412953 0.965613 -1.31477  1.57903
-3.61985 0.251639  0.46019 0.930099 -1.29795  1.54711
-3.64317 0.263943 0.415025 0.897081 -1.30366  1.50606
-3.61865 0.280547 0.383773 0.873133 -1.34114  1.47997
-3.59317 0.322427 0.366587 0.843707  -1.4148  1.45511
-3.56915 0.373696 0.310262  0.80855 -1.54859  1.40058
-3.53027  0.44055 0.246531 0.790522 -1.66205  1.31131
-3.49831 0.482052  0.16783 0.782466  -1.7416   1.1902
 -3.4872 0.495403 0.063225 0.787706 -1.78189  1.00509
  -3.46959   0.500126 -0.0294445 0.804566 -1.76733 0.859035
 -3.44455  0.487657 -0.114602 0.824379 -1.72307 0.749032
 -3.43658  0.453003 -0.179509 0.845396 -1.66567 0.663281
 -3.42167   0.42116 -0.257575 0.868196 -1.59749 0.587695
 -3.38415  0.414805 -0.308466 0.842783 -1.61248   0.5545
 -3.34774  0.490745 -0.296316 0.787371 -1.70599 0.567007
 -3.31095  0.557222 -0.262191 0.730412  -1.7944 0.593413
-3.26694  0.63409 -0.22463 0.645168 -1.91829 0.642979
 -3.21791   0.72784 -0.200009 0.582707 -2.00245 0.688022
 -3.17117  0.792761 -0.162213 0.509094  -2.0816 0.746368
 -3.10957  0.857196 -0.111603 0.429963 -2.13619 0.806646
  -3.04842   0.888009 -0.0582073 0.342472 -2.16517 0.870039
   -2.98413    0.897774 -0.00308305 0.228573 -2.16002 0.948717
 -2.91801  0.884084 0.0484633 0.148134 -2.12882  1.00032
 -2.85178  0.867056 0.0797017 0.0611544  -2.06797   1.04763
-2.78932 0.826849 0.113575 -0.0173741   -1.98282    1.08339
-2.74363 0.761274 0.136052 -0.0804946   -1.88056    1.10873
-2.68106 0.704045  0.14985 -0.135927  -1.72977   1.12836
 -2.6395 0.611085 0.165175 -0.154695  -1.61033   1.13531
-2.63495 0.575866 0.153731 -0.154584  -1.48919   1.13624
-2.61861 0.475976 0.138185 -0.142489  -1.38386   1.13026
-2.59533 0.360476 0.146312 -0.103221  -1.23144   1.10522
-2.59284 0.342097 0.154782 -0.0947879   -1.20766    1.10107
-2.56285 0.231519 0.133778 -0.0717552   -1.13761    1.09772
-2.55869 0.224537 0.166561 -0.0834618   -1.13609    1.11236
-2.57291 0.218556  0.17931 -0.101853   -1.1893   1.11765
-2.56567  0.20454 0.169122 -0.101406  -1.29556   1.10826
-2.61493 0.288215 0.151845 -0.0812431   -1.39446    1.09222
-2.68944  0.35121 0.148038 -0.0239395   -1.52448    1.06481
-2.72876  0.39586 0.133785 0.0463385  -1.61791    1.0399
-2.79619 0.449728 0.102961 0.135385 -1.69355  1.01032
 -2.81925  0.517157 0.0634133  0.22343 -1.73869 0.980386
 -2.90128  0.531804 0.0353305 0.325133 -1.76313 0.942924
 -2.97145  0.503187 0.0135219 0.432737 -1.75598 0.898489
  -3.06404   0.458198 -0.0443646 0.542768  -1.6942 0.832696
  -3.09613    0.39672 -0.0938909  0.59661 -1.59496 0.764424
-3.08106 0.300568 -0.14519 0.566886 -1.47843 0.702159
 -3.01375  0.215592 -0.172808 0.469311 -1.40526  0.67029
 -2.93613  0.185731 -0.170533 0.344019 -1.39736 0.695663
 -2.85429  0.194528 -0.138572 0.252646 -1.44221 0.773858
  -2.8005  0.213785 -0.050282 0.197283 -1.50914 0.895614
 -2.76446  0.254166 0.0589121 0.181761 -1.57037  1.06341
-2.74524 0.313347  0.17441 0.199391  -1.5878  1.24687
-2.75105 0.322943 0.237342 0.222158  -1.5729  1.36106
-2.78805 0.277079 0.350508  0.26611 -1.51174  1.51048
-2.82074 0.245854 0.445649 0.302651 -1.42617  1.61878
-2.86015 0.202532  0.51751 0.331072 -1.31914  1.69467
-2.89537 0.132335 0.554454 0.354263 -1.22003  1.73874
 -2.93273 0.0385076  0.601375 0.379533 -1.08724  1.78636
   -2.9677 -0.0512074   0.629735  0.387173 -0.972848   1.81962
 -3.00798 -0.135907  0.679091  0.343718 -0.897311   1.81589
-3.01662 -0.18115  0.71896  0.320416 -0.926081   1.76364
-3.02716 -0.19967 0.708147 0.329737 -0.97312  1.71382
 -3.03817 -0.199206  0.673306 0.349563 -1.02263  1.65866
 -3.03274 -0.142892  0.635195 0.392198 -1.09066  1.57496
 -3.05856 -0.108016  0.575497 0.452542 -1.15396   1.4787
  -3.10471 -0.0718975   0.474443  0.52676 -1.20499  1.36141
 -3.16962 -0.087122  0.360447 0.627289 -1.22808  1.18328
   -3.1926 -0.0418304   0.304596 0.679517 -1.22038  1.09654
 -3.26591 -0.057818  0.180811 0.776256 -1.18091 0.952624
 -3.33603  -0.11117 0.0760255 0.873214  -1.1128 0.831631
   -3.38118  -0.0957628 -0.00190603  0.93607 -1.05359 0.762945
  -3.45368  -0.162489 -0.0942505   1.01689 -0.962375  0.689345
 -3.51295 -0.223678  -0.16974    1.0919 -0.875705  0.639834
 -3.55867 -0.247864 -0.234285   1.13815 -0.832123  0.612181
 -3.61622 -0.259555 -0.248832   1.12146 -0.940508  0.593392
 -3.61242 -0.183243 -0.240155  1.08707 -1.09075   0.6523
 -3.58351 -0.130097 -0.195047  1.04609 -1.19941 0.736724
  -3.56526 -0.0725245  -0.138462  1.01269  -1.2759 0.837918
  -3.54721 -0.0228108 -0.0484643   0.9898 -1.33719 0.971845
  -3.54233   0.037309 -0.0149513  0.98496 -1.36179   1.0661
 -3.55404 0.0498772 0.0856794 0.994148 -1.37204  1.20658
 -3.58196 0.0473552  0.179341   1.0243 -1.35221  1.34476
 -3.61744 0.0319021  0.248118   1.0683 -1.30973  1.45311
 -3.64439 0.0446212  0.321733  1.12845 -1.24313  1.54467
  -3.68889 0.00944325   0.381558  1.19139 -1.17102  1.58295
 -3.74373 0.0010292   0.36497   1.2368 -1.21281   1.4825
  -3.76883 0.00712292    0.28335  1.26244 -1.24824  1.38648
  -3.78396 -0.0317606   0.159008  1.28404 -1.26712  1.25649
  -3.79551 -0.0435776  0.0758966  1.29583 -1.25908  1.11843
  -3.80503 -0.0602791 -0.0365384  1.31571 -1.20263 0.924382
 -3.80012 -0.133068  -0.14941  1.32661 -1.12164 0.770368
 -3.81179 -0.194988 -0.255315  1.34363 -1.02885 0.655901
 -3.82106 -0.273807 -0.317474  1.37195 -0.94327 0.580484
 -3.84249 -0.306451 -0.362011   1.40385 -0.958391  0.533649
-1.94931 0.982895 0.634915 -0.718209  -1.87855   1.58984
-2.01083 0.967233 0.631642 -0.644171  -1.86977   1.58474
-2.10144 0.952068 0.617677 -0.554168  -1.86574   1.57474
   -2.17 0.943769 0.597415 -0.484153  -1.86237   1.55745
-2.20854  0.93522 0.580738 -0.432518  -1.85817    1.5474
-2.25243 0.926003  0.56831 -0.388163  -1.85178   1.54786
-2.29413 0.913604 0.564401 -0.345201  -1.84167   1.55762
-2.32957 0.897343 0.574847 -0.301173  -1.82702   1.56976
-2.37807 0.876164 0.577386 -0.258021  -1.80904   1.57548
-2.44493 0.839116 0.574152 -0.192212  -1.77163   1.57747
-2.49647 0.789855 0.567919 -0.125789  -1.72028   1.57465
 -2.5372 0.748275 0.560911 -0.084612  -1.68261   1.56886
-2.57726 0.702969 0.549059 -0.0410384   -1.63885    1.56201
-2.61755 0.651029 0.540382 0.010219 -1.58309  1.55597
-2.66988 0.578601 0.528539 0.0634277   -1.5208   1.55435
-2.71177 0.534029  0.53028 0.101427 -1.47722   1.5612
-2.74982 0.494487 0.532775 0.141796 -1.43656  1.56628
-2.79513 0.459576 0.530817 0.192568 -1.39419  1.56352
-2.83027 0.424414 0.525588 0.232955  -1.3659  1.56026
-2.87509 0.399645 0.520214 0.270239 -1.34369  1.55866
 -2.9315 0.376968 0.510918 0.319343 -1.31869  1.55569
-2.99063 0.352848 0.500179 0.372773 -1.29524  1.55031
-3.03945 0.334964 0.489591 0.409361 -1.27805  1.54618
-3.06979 0.316835 0.480276 0.440859 -1.26099  1.54062
 -3.1086 0.297275 0.470337 0.476752 -1.23697  1.53391
 -3.1401 0.271963 0.463137 0.505212 -1.21628  1.53172
-3.18181 0.253795  0.46034 0.529861 -1.19769  1.53341
-3.21358 0.235038 0.456447 0.559651 -1.17443   1.5378
-3.23331 0.210239 0.456257 0.580815 -1.15667  1.54054
-3.25181 0.191629 0.454684 0.597138 -1.14063  1.54238
-3.27136 0.174557 0.455526 0.615881  -1.1194  1.54382
-3.28781 0.154397 0.455392 0.627231 -1.10364  1.54475
-3.30901 0.132419  0.45587  0.64334 -1.07563  1.54558
-3.32362 0.109892 0.454895 0.655092 -1.05031  1.54581
-3.33985 0.083169 0.461078 0.665569 -1.02312  1.54544
 -3.34712 0.0510634  0.450557  0.677381 -0.988686   1.54416
  -3.36315 0.00553199   0.450752   0.68883 -0.950324   1.54271
  -3.37175 -0.0446118   0.445119  0.699881 -0.905857   1.54023
  -3.38528 -0.0970396   0.441575  0.712947 -0.845139   1.53555
 -3.39416 -0.146228  0.439194  0.722643 -0.795034   1.53141
 -3.40759 -0.223464  0.440834  0.734617 -0.729883   1.53164
 -3.41396 -0.276983  0.445022  0.740844 -0.685007   1.53408
 -3.41749 -0.342497  0.446073  0.737649 -0.629037   1.52906
 -3.38474 -0.404371  0.438988  0.708082 -0.590941   1.52357
 -3.33449 -0.423655  0.449214  0.649449 -0.584191   1.51879
 -3.20589 -0.414764  0.450428  0.547622 -0.604934   1.50945
 -3.11693 -0.397057  0.463468  0.469275 -0.633282   1.51907
 -3.04251 -0.374916  0.480634  0.400767 -0.663485   1.52893
  -2.9839 -0.355581   0.49248  0.347806 -0.682785   1.53099
 -2.9357 -0.34461 0.504986  0.301689 -0.692674   1.53798
  -2.8771 -0.335255   0.52069  0.261364 -0.695093    1.5423
 -2.84818 -0.337159  0.519549  0.209184 -0.691635   1.54164
  -2.7556 -0.346676  0.531358  0.138118 -0.676897   1.53576
 -2.68241 -0.363505  0.530357 0.0714582 -0.654635   1.52895
 -2.60532 -0.390676  0.547507 -0.00986257    -0.61753     1.54184
-2.52775 -0.42963 0.578321 -0.0744267   -0.58246    1.55537
 -2.49749 -0.448327  0.587209 -0.101653 -0.567314   1.55808
 -2.47703 -0.459908  0.593121 -0.126233 -0.553635   1.56175
 -2.45829 -0.467879  0.601694 -0.138492  -0.54618   1.56483
 -2.44788 -0.475053   0.60591 -0.146463 -0.540922   1.56696
 -2.44099 -0.478413  0.609149 -0.149065  -0.53854   1.56825
 -2.43787 -0.480277  0.610832 -0.145574 -0.538709   1.56921
-2.43775 -0.48053 0.611217 -0.136715 -0.543024   1.56915
 -2.44163 -0.479362  0.611186 -0.122589 -0.550334   1.56943
  -2.4629 -0.465623  0.610545 -0.0931096  -0.567644    1.56834
 -2.51733 -0.433656  0.594511 -0.0450801  -0.596838     1.5616
  -2.5751 -0.397445    0.5737    0.0346 -0.641558   1.54493
-2.64694 -0.36768  0.54942 0.0996645 -0.675237   1.53198
 -2.68448 -0.345587  0.536199  0.140344 -0.695787   1.52911
 -2.75631 -0.326369  0.516833  0.184689 -0.716345   1.52941
 -2.79224 -0.313016  0.513997  0.228537 -0.732922   1.53827
 -2.84396 -0.296416  0.517678  0.264297 -0.743766   1.54644
-2.88419 -0.29199   0.5218  0.311186 -0.754014    1.5507
 -2.92181 -0.285692  0.520973  0.350797 -0.760337   1.54886
-2.97464  -0.2784 0.514893   0.38926 -0.764125    1.5453
-3.02686 -0.27859 0.501809  0.430927 -0.766021   1.54095
 -3.05429 -0.279442   0.49725  0.475935 -0.765958   1.53425
 -3.11713 -0.280981  0.481608  0.519582 -0.762872   1.52335
 -3.19253 -0.287485   0.45178  0.586394 -0.754869   1.50309
   -3.297 -0.299075  0.431984  0.679435 -0.746048    1.5055
 -3.40669 -0.295257  0.446937  0.769043 -0.747113   1.51887
 -3.51482 -0.278245  0.443255  0.877126 -0.774445   1.51381
 -3.61094 -0.248063  0.433883  0.971403 -0.825517    1.5155
 -3.67331 -0.210445   0.42719   1.03785 -0.875358   1.51017
 -3.75585 -0.147642  0.399677   1.09147 -0.924494   1.49422
  -3.79601 -0.0925506   0.369866    1.1475 -0.984462   1.46913
  -3.83777 -0.0434477   0.350123  1.19461 -1.03529  1.46394
  -3.87702 0.00311966   0.356031  1.23671 -1.07704  1.47671
 -3.90389 0.0282868  0.360238  1.27161 -1.10603  1.48132
 -3.93334 0.0489548  0.353873  1.29314 -1.11561  1.48117
 -3.95181 0.0596488  0.349286 1.31343 -1.1163 1.48221
 -3.97239 0.0695402  0.355057  1.33538 -1.10924   1.4834
-3.98758 0.068785 0.352415  1.35658 -1.09734   1.4843
 -3.99447 0.0674523   0.35555    1.379 -1.08104  1.48464
-4.01266 0.053386 0.356416  1.40237 -1.06084  1.48509
  -4.0294 0.0316004  0.374195  1.43082 -1.03265  1.48512
 -4.03904 0.0124397  0.378086  1.45349 -1.00793  1.48504
  -4.05196 -0.0146361   0.381273   1.47523 -0.983494   1.48495
   -4.0674 -0.0437304   0.385127   1.50007 -0.956684   1.48416
    -4.089 -0.0882921   0.378562  1.54367 -0.91245  1.48232
 -4.11618 -0.130928  0.379013   1.58248 -0.870904   1.48156
 -4.14436 -0.197599  0.378854   1.62483 -0.808617   1.48144
 -4.16777 -0.248539  0.376207   1.63205 -0.766087   1.47946
 -4.17998 -0.270262  0.367991   1.62277 -0.743751   1.47889
 -4.18215 -0.283323  0.365152   1.61472 -0.731511    1.4775
 -4.18127 -0.301049  0.362229   1.60531 -0.720867   1.47594
 -4.17771 -0.311534   0.36184   1.59238 -0.710514   1.47399
 -4.17116 -0.323041  0.356895   1.56962 -0.700188   1.47073
 -4.16228 -0.331266  0.349803   1.54666 -0.694811   1.46815
 -4.14625 -0.346642   0.33403   1.51381 -0.691103   1.46406
 -4.12563 -0.354996  0.323614   1.48672 -0.690392   1.46031
 -4.10527 -0.365336  0.318429   1.46206 -0.690239   1.46102
 -4.06702 -0.381004  0.329156   1.43949 -0.690005   1.46464
 -4.06461 -0.381399  0.330081   1.42666 -0.689341   1.46817
 -4.06147 -0.382535  0.329461   1.41737 -0.689051   1.47132
-4.05038  -0.3854 0.334844   1.40357 -0.687915   1.47605
 -4.03583 -0.388605  0.335108   1.39086 -0.686738   1.47875
  -4.0242 -0.388343  0.340882   1.37854 -0.683829   1.48048
 -4.00936 -0.395052  0.348199    1.3655 -0.677908   1.48149
 -3.96245 -0.418374  0.361673   1.34334 -0.658345   1.48049
  -3.9567 -0.429637  0.361652   1.32794 -0.635472   1.47912
  -3.9505 -0.448933  0.362568   1.31351 -0.605776   1.47762
 -3.94339 -0.478372   0.35857   1.30243 -0.578138   1.47548
-3.92481 -0.51099 0.354866   1.29048 -0.544475   1.47311
 -3.89907 -0.562852  0.364253   1.27585 -0.494293   1.47468
  -3.8825 -0.604341  0.380948    1.2654 -0.450914    1.4793
  -3.8777 -0.643256  0.376115   1.25676 -0.411868   1.48369
 -3.86295 -0.669805  0.381684    1.2508 -0.386281     1.487
 -3.84073 -0.732407  0.398671    1.2423 -0.349983   1.49157
 -3.83502 -0.760101  0.395164   1.23283 -0.311356   1.49447
  -3.8321 -0.789576  0.397468   1.22606 -0.281479   1.49472
 -3.82274 -0.831899  0.399057   1.21517 -0.232069     1.494
 -3.80931 -0.871154  0.400365   1.20881 -0.206646   1.49401
  -3.8114 -0.889356  0.406397   1.20296 -0.188165   1.49465
 -3.80564 -0.905635  0.405171  1.19748 -0.17407  1.49538
 -3.80109 -0.917198    0.4075   1.19419 -0.168258   1.49583
-3.79246 -0.92299 0.411976  1.18974 -0.16423  1.49687
-3.79078 -0.93227 0.410624   1.18582 -0.166116   1.49783
 -3.78814 -0.932531   0.41178  1.18313 -0.17044  1.49843
 -3.78767 -0.931673  0.412223   1.17943 -0.181843   1.49852
 -3.78278 -0.924906  0.410497   1.17527 -0.199963    1.4986
 -3.77523 -0.838677  0.415442   1.16078 -0.293096   1.49603
 -3.75933 -0.807036  0.408538   1.15392 -0.332733   1.49278
 -3.76451 -0.762105  0.402958  1.14564 -0.37867  1.48871
-3.76078 -0.73381 0.406911   1.13921 -0.412793   1.48548
 -3.76892 -0.699648  0.397987   1.13198 -0.451341   1.48185
 -3.74646 -0.630688  0.403413   1.11884 -0.516846   1.48187
 -3.73866 -0.570862  0.408253 1.10706 -0.5776 1.48399
 -3.73933 -0.510149  0.410948   1.09595 -0.640039   1.49039
 -3.73541 -0.455494  0.419313   1.08691 -0.694479   1.49597
 -3.72764 -0.405218  0.426994     1.079 -0.738728   1.49832
 -3.73175 -0.362348  0.421273   1.07029 -0.774245   1.49975
 -3.72485 -0.342576  0.424346   1.06302 -0.796499   1.50001
  -3.7197 -0.307823  0.421616  1.05188 -0.82225  1.49968
-3.70832 -0.28842   0.4232   1.04284 -0.837341   1.49901
-3.70008 -0.26576 0.425698 1.02713  -0.857 1.49726
 -3.68834 -0.245595  0.426303  1.01051 -0.87391  1.49449
 -3.67379 -0.221964  0.424593  0.991372 -0.891823   1.49124
 -3.65949 -0.205577  0.421747   0.96413 -0.914254   1.48684
 -3.63671 -0.183492  0.414259   0.94218 -0.930338   1.48406
 -3.60645 -0.162637  0.415605  0.919294 -0.945111   1.48154
 -3.59808 -0.137275  0.409659 0.888879 -0.96258  1.48268
 -3.55141 -0.112196  0.417818  0.865096 -0.975214   1.48901
  -3.53068 -0.0874921   0.416604  0.844532 -0.987787   1.49245
   -3.5083 -0.0681962   0.421879 0.816889 -1.01035   1.4943
   -3.4959 -0.0415907   0.421889 0.793576 -1.03377  1.49722
   -3.46713 -0.00493245    0.425662 0.772823 -1.05733  1.50075
 -3.44365 0.0266869  0.431528 0.750627 -1.08479   1.5042
 -3.40607 0.0770501   0.43949 0.715711 -1.13173  1.50665
-3.35214 0.162693 0.438834 0.660444 -1.21711  1.50511
-3.31116 0.221657 0.445289 0.633648 -1.26779  1.50773
-3.29756 0.259269 0.450092 0.617042 -1.30295  1.51129
 -3.2773 0.293392 0.451542 0.598769 -1.34394  1.51516
-3.26873 0.316317 0.451793 0.588393 -1.36919  1.51779
-3.25775  0.34799 0.453493 0.580258 -1.39167  1.52016
-3.25187  0.37363 0.463311 0.576131 -1.40887  1.52153
 -3.2492 0.389421  0.46263 0.574146 -1.42184  1.52146
-3.24268 0.405871 0.468646 0.573612 -1.43279  1.52186
-3.24337  0.41542 0.469153 0.573497 -1.43664  1.52312
-3.24247  0.42235 0.472582 0.571678 -1.43847  1.52422
-3.24295 0.428665 0.471323 0.567561 -1.43718   1.5251
-3.23945 0.430659 0.471549 0.562004 -1.43228  1.52551
 -3.2349 0.428608 0.470694 0.554138 -1.42004  1.52453
-3.22656 0.424195 0.474889 0.548779 -1.40527  1.52302
-3.20121 0.390682 0.477695 0.545343 -1.38395  1.52061
-3.19781 0.375518 0.466542 0.545005 -1.35766   1.5181
-3.20453 0.272343 0.407802 0.551672 -1.30048  1.51327
 -3.2368 0.250735 0.406917  0.55414 -1.28769  1.51266
-3.22417 0.225426 0.455077  0.56851 -1.22698  1.51452
-3.21897 0.175324 0.469307 0.584146 -1.17101  1.51742
-3.23747 0.171198 0.477781  0.59511 -1.13165  1.51863
-3.25479 0.102985 0.475192 0.601919 -1.09317  1.52176
 -3.24979 0.0602005  0.470974 0.603016 -1.06905  1.52194
 -3.24764 0.0371537  0.473238 0.59905 -1.0407 1.52094
  -3.2446 0.0160457  0.473106  0.59115 -1.02031  1.52013
   -3.23777 -0.00190414    0.471002 0.579005 -1.00131  1.51921
  -3.22443 -0.0342566   0.464571  0.564814 -0.984811   1.51787
  -3.20646 -0.0537723   0.462833  0.545004 -0.965217   1.51465
  -3.17982 -0.0802581   0.456796  0.517878 -0.941934   1.50985
 -3.12535 -0.112317  0.460491  0.476797 -0.909581   1.50574
 -3.09425 -0.137874  0.459568  0.435655 -0.878637   1.51027
 -3.04504 -0.168085  0.477704  0.398486 -0.851057   1.52347
 -3.00316 -0.197812  0.492579 0.374097 -0.82957  1.52812
 -2.98211 -0.213261  0.501438  0.361952 -0.810414   1.53049
 -2.97356 -0.224349  0.505311  0.361029 -0.795292   1.53378
 -2.97267 -0.237132  0.509027  0.364785 -0.778197   1.53636
  -2.9768 -0.258904  0.512952   0.37064 -0.755862   1.53864
 -2.97786 -0.284356  0.516757 0.376302 -0.72845  1.54086
 -2.98007 -0.301451  0.518789  0.379522 -0.708711   1.54186
 -2.98799 -0.336264   0.52244  0.383987 -0.674183   1.54343
 -2.99902 -0.372063  0.520761  0.389358 -0.638639    1.5435
   -2.994 -0.416464  0.520386  0.39901 -0.59728  1.54035
-3.01178 -0.46781 0.512662 0.413867 -0.55562  1.53526
 -3.03407 -0.521432  0.516032 0.444967 -0.49192  1.53188
 -3.07044 -0.586776  0.509277  0.478175 -0.438092   1.53533
 -3.11363 -0.648595  0.506208 0.520563  -0.3898  1.53862
 -3.15902 -0.683118  0.509489  0.553493 -0.367617   1.53873
 -3.16855 -0.692225  0.505444  0.577229 -0.357344   1.53929
 -3.18436 -0.701523  0.506676  0.593194 -0.353089    1.5397
 -3.20433 -0.710781  0.503581  0.606684 -0.351868   1.53945
 -3.21535 -0.716355   0.50738  0.617208 -0.352705   1.53872
-3.22525 -0.71602 0.504604  0.627762 -0.355822   1.53754
 -3.23864 -0.711807  0.504475   0.64126 -0.363409   1.53565
 -3.24525 -0.711747  0.502256 0.648273 -0.36835  1.53485
 -3.25373 -0.708847  0.498967  0.662461 -0.379312   1.53158
 -3.27012 -0.699637  0.494172  0.679106 -0.392363   1.52636
 -3.29451 -0.684909  0.483725   0.69313 -0.402914   1.52138
 -3.32616 -0.671023   0.47363  0.71712 -0.41979  1.51333
 -3.34934 -0.655962  0.463749  0.747161 -0.440252    1.5021
 -3.39231 -0.635071  0.447983  0.779639 -0.459079   1.49144
 -3.48422 -0.599444  0.426207  0.864335 -0.491391   1.49154
 -3.53372 -0.587451  0.429545 0.920872 -0.50137  1.50164
 -3.57935 -0.584085   0.43466  0.965242 -0.505801   1.51114
 -3.60453 -0.579011   0.43838    0.9994 -0.507143   1.51812
 -3.64153 -0.582817  0.442864  1.03281 -0.50653   1.5229
 -3.65922 -0.582509   0.44161   1.05133 -0.504973   1.52451
 -3.68332 -0.583948  0.439152   1.07362 -0.500513   1.52525
 -3.70399 -0.587898  0.438145   1.09266 -0.493646   1.52519
 -3.71585 -0.592241  0.434708   1.10803 -0.485936   1.52586
 -3.72661 -0.601928  0.434916   1.12532 -0.474675   1.52774
 -3.74622 -0.614664  0.430607   1.14759 -0.459019    1.5283
 -3.78274 -0.640677  0.425364   1.18126 -0.438248   1.52498
 -3.79959 -0.651976  0.419313    1.1978 -0.431199   1.52127
 -3.81009 -0.657279  0.415836   1.21544 -0.425461   1.51836
 -3.83442 -0.667636  0.411513    1.2309 -0.422522   1.51591
 -3.84404 -0.672875  0.405764   1.24721 -0.422068    1.5149
 -3.85476 -0.675161  0.403581   1.25742 -0.427698   1.51494
 -3.86619 -0.672435  0.402391   1.26494 -0.440808   1.51428
 -3.87775 -0.659784  0.400137      1.27 -0.463204   1.51287
 -3.89051 -0.575615  0.384323   1.26196 -0.566173   1.50129